# .PCD v0.7 - Point Cloud Data file format
VERSION 0.7
FIELDS x y z rgb
SIZE 4 4 4 4
TYPE F F F U
COUNT 1 1 1 1
WIDTH 398
HEIGHT 1
VIEWPOINT 0 0 0 1 0 0 0
POINTS 398
DATA ascii
0.098440714 0.03823489 0.97700006 4284244272
0.12000515 0.03480944 0.95700002 4286545713
0.12563267 0.034914337 0.96000004 4286611504
0.53087121 0.11788631 3.2440002 4286545713
0.14005598 0.032574128 0.96900004 4284638256
0.52793372 0.10839323 3.2260001 4286544687
0.55399024 0.10830215 3.2240002 4286282288
0.58896184 0.10823566 3.223 4284638256
0.11441246 0.029471124 0.95400006 4286413615
0.13034089 0.029522156 0.95600003 4285888304
0.50732696 0.098981723 3.2070003 4286479407
0.51672393 0.099098124 3.2110002 4286544687
0.54165375 0.098829627 3.2030001 4286348081
0.55947244 0.098876558 3.2050002 4285954097
0.11441408 0.026854316 0.95400006 4286413872
0.12211591 0.026821405 0.95300007 4286084655
0.1245914 0.026791615 0.95200002 4286019376
0.13571046 0.026925461 0.95700002 4285559087
0.13875911 0.027008081 0.96000004 4285493296
0.14241274 0.027203189 0.96700007 4285296176
0.51335132 0.089708328 3.1900001 4286479408
0.53878582 0.089576237 3.1860001 4286018862
0.56555802 0.089668497 3.1900001 4285756719
0.5740732 0.089633532 3.1890001 4285559087
0.58312941 0.089682832 3.1910002 4285427501
0.59330761 0.08990068 3.1990001 4285296176
0.094301477 0.024451055 0.96200007 4286217521
0.10135707 0.024244057 0.95400006 4286413872
0.11405575 0.024161182 0.95100003 4286217007
0.12211744 0.024207691 0.95300007 4286216241
0.13557033 0.024276208 0.95600003 4285625135
0.13847174 0.024325388 0.95800006 4285164331
0.14167811 0.024425311 0.96200007 4285098538
0.14505588 0.024550594 0.96700007 4284768552
0.52910268 0.08070077 3.1800001 4285953069
0.57281959 0.080721177 3.1820002 4285756721
0.58203959 0.080791049 3.1850002 4285164329
0.58997595 0.080683306 3.1810002 4285098538
0.59788871 0.080575526 3.177 4284768552
0.089585595 0.021949099 0.96800005 4285363505
0.091952503 0.021880051 0.96500003 4285428782
0.094302602 0.021810984 0.96200007 4285690925
0.10146451 0.021649003 0.95500004 4286217007
0.1039708 0.021625193 0.95400006 4286348593
0.10624776 0.021556029 0.95100003 4286085421
0.12186255 0.021548567 0.95100003 4285953583
0.12459438 0.021569902 0.95200002 4285689898
0.12719761 0.021568557 0.95200002 4285887791
0.1300731 0.021612499 0.95400006 4285887537
0.13281998 0.021633765 0.95500004 4285559342
0.13543005 0.021632349 0.95500004 4285361708
0.13832872 0.021676216 0.95700002 4285164331
0.14123784 0.021720057 0.95900005 4285032745
0.14475745 0.021854462 0.96500003 4284704041
0.52644616 0.07162492 3.164 4285953583
0.53490818 0.071596995 3.1630001 4285821484
0.54490966 0.071772732 3.1710002 4285821998
0.55442941 0.07188049 3.1760001 4285887537
0.56379741 0.071965553 3.1800001 4285559342
0.5717454 0.07186953 3.1760001 4285493294
0.58003533 0.071818724 3.1740003 4285230124
0.58719981 0.071632117 3.1660001 4285361710
0.59337807 0.071332388 3.1530001 4284704041
0.089401446 0.019252362 0.96600002 4285033773
0.091858186 0.019211603 0.96400005 4285033771
0.094205566 0.019150896 0.96100003 4285559340
0.1088524 0.018945687 0.95100003 4286085935
0.11110394 0.018884862 0.94800007 4286217521
0.11913697 0.018921394 0.95000005 4285954097
0.1216075 0.018900333 0.94900006 4285625133
0.12459565 0.018958917 0.95200002 4285690158
0.12733251 0.018977648 0.95300007 4285559342
0.1300744 0.018996356 0.95400006 4285559342
0.13282129 0.019015042 0.95500004 4285559087
0.13528958 0.01899389 0.95400006 4285427501
0.13833007 0.019052353 0.95700002 4285164076
0.14109194 0.019070981 0.95800006 4284835111
0.14430885 0.019149307 0.96200007 4284638248
0.50419474 0.062347099 3.1330001 4285954097
0.5234561 0.062596694 3.1460001 4285625133
0.53305292 0.062711455 3.1520002 4285821998
0.5426808 0.062826134 3.1580002 4285625135
0.55129224 0.062821403 3.1580002 4285559342
0.56025666 0.062856406 3.1600001 4285624880
0.56743002 0.062692471 3.1520002 4285427501
0.57510632 0.062588178 3.1470001 4285295917
0.58219737 0.062424209 3.1390002 4285032490
0.58943117 0.062280104 3.1320002 4284638248
0.086934216 0.016636027 0.96800005 4284375851
0.089402273 0.016600896 0.96600002 4284573223
0.09176375 0.016548567 0.96300006 4284902187
0.09420643 0.016513404 0.96100003 4285625649
0.096537024 0.016461043 0.95800006 4285625902
0.098954313 0.016425848 0.95600003 4285889072
0.11133933 0.016318358 0.95000005 4285888558
0.11393932 0.016317423 0.95000005 4285954097
0.11629353 0.016282123 0.94800007 4285954097
0.12420411 0.016296342 0.94900006 4285690928
0.12693278 0.016312495 0.95000005 4285493549
0.12993918 0.016362967 0.95300007 4285427756
0.13254429 0.016361915 0.95300007 4285493294
0.13514891 0.016360845 0.95300007 4285230124
0.13833125 0.016428424 0.95700002 4285098283
0.14124042 0.01646165 0.95900005 4284835627
0.14446007 0.016529186 0.96300006 4284704557
0.14754832 0.016579531 0.96600002 4284046640
0.50226778 0.053554595 3.1210001 4285888304
0.52079815 0.053701211 3.1300001 4285822512
0.53924829 0.053830467 3.1380002 4285625135
0.54902726 0.053946484 3.1450002 4285427756
0.55600595 0.05378801 3.1360002 4285493294
0.56383407 0.053715285 3.1320002 4285230124
0.5714559 0.053625382 3.1270001 4285098283
0.57960522 0.053586904 3.1250002 4284835627
0.58849478 0.053616986 3.1270001 4284704557
0.59853905 0.053749897 3.1350002 4284046640
0.08454258 0.014022829 0.97100008 4284047145
0.086934909 0.013978883 0.96800005 4284178472
0.089402981 0.013949363 0.96600002 4284638248
0.091764465 0.013905391 0.96300006 4285230638
0.094207168 0.013875843 0.96100003 4285625649
0.10375565 0.013743086 0.95200002 4286085937
0.11394019 0.013711163 0.95000005 4286085169
0.1187627 0.013666255 0.94700003 4285822512
0.12407416 0.013679017 0.94800007 4285559342
0.12693372 0.013707018 0.95000005 4285493294
0.12980381 0.013735003 0.95200002 4285427503
0.13240618 0.013734117 0.95200002 4285361710
0.13514991 0.013747645 0.95300007 4285229869
0.13818774 0.013790005 0.95600003 4284703527
0.14109418 0.013817924 0.95800006 4284440616
0.14431112 0.013874674 0.96200007 4284572716
0.14739664 0.01391698 0.96500003 4284046893
0.517474 0.04483556 3.1100001 4285756721
0.52646542 0.044875491 3.1130002 4285625135
0.53564322 0.044929791 3.1170001 4285559087
0.54396838 0.044911992 3.1160002 4285427503
0.55335027 0.044980634 3.1210001 4285361710
0.56095749 0.044905126 3.1160002 4285229869
0.5679875 0.044786364 3.108 4284703527
0.57608509 0.044754051 3.1060002 4284440616
0.58492285 0.044779342 3.108 4284572716
0.59548825 0.044934276 3.1190002 4284046893
0.084543131 0.011357273 0.97100008 4284245292
0.086935475 0.011321681 0.96800005 4284244522
0.089311011 0.011286075 0.96500003 4284572969
0.091574475 0.011238767 0.96100003 4285231152
0.094011717 0.011214837 0.95900005 4285296684
0.096437626 0.011190897 0.95700002 4285691440
0.098852202 0.011166946 0.95500004 4285691695
0.10625131 0.011118411 0.95100003 4285822511
0.11334122 0.011046401 0.94500005 4285558826
0.1160498 0.011057444 0.94600004 4285887537
0.11838721 0.011033412 0.94400007 4285625135
0.12109768 0.011044431 0.94500005 4285559342
0.12368228 0.011043752 0.94500005 4285295915
0.12653366 0.011066431 0.94700003 4284966952
0.12953189 0.011100784 0.95000005 4284901159
0.13226791 0.011111751 0.95100003 4284835111
0.13500892 0.011122707 0.95200002 4284769320
0.138044 0.011157016 0.95500004 4284900906
0.14109501 0.011191311 0.95800006 4284637995
0.14431196 0.011237273 0.96200007 4284440102
0.50653636 0.036140382 3.095 4285625135
0.51531386 0.036161084 3.0970001 4285625135
0.52359331 0.036146738 3.0960002 4285427756
0.53169382 0.036120683 3.0940001 4285164331
0.54013085 0.036117956 3.0940001 4284901159
0.54750246 0.036045171 3.0880001 4284835111
0.5570001 0.036112435 3.0940001 4284769320
0.56433558 0.036039613 3.0880001 4284900906
0.57200778 0.035990119 3.0840001 4284637995
0.58078569 0.036010623 3.0860002 4284112165
0.086846113 0.0086554801 0.96700007 4284113959
0.089218929 0.0086282333 0.96400005 4284837165
0.091479667 0.0085920291 0.96000004 4284902955
0.093914181 0.0085737156 0.95800006 4285494577
0.096337348 0.0085553937 0.95600003 4285559854
0.09895622 0.0085549615 0.95600003 4285822511
0.10386583 0.0085272249 0.95300007 4285822512
0.10636359 0.0085178167 0.95200002 4285625133
0.10862653 0.0084905075 0.94900006 4285361963
0.11122423 0.0084900288 0.94900006 4285230377
0.11346172 0.0084627056 0.94600004 4285559342
0.11605037 0.0084622102 0.94600004 4285296170
0.1186386 0.0084617073 0.94600004 4285361708
0.12122641 0.008461195 0.94600004 4285493296
0.12394465 0.0084696179 0.94700003 4285493041
0.12680151 0.008486975 0.94900006 4285098283
0.12953253 0.0084953774 0.95000005 4284835627
0.13226855 0.0085037714 0.95100003 4284769834
0.13486773 0.0085032145 0.95100003 4284638248
0.13790013 0.0085294712 0.95400006 4284703788
0.1409484 0.0085557168 0.95700002 4284309544
0.14416263 0.008590891 0.96100003 4284309291
0.5037564 0.027506139 3.0780001 4285361708
0.51315314 0.027557734 3.0840001 4285493296
0.52105892 0.027528889 3.0810001 4285295917
0.52963406 0.027535768 3.0820003 4284966697
0.53751469 0.027506886 3.0790002 4284900906
0.54537731 0.027477991 3.0760002 4284769834
0.55394208 0.027484814 3.0770001 4284638248
0.56196231 0.02746482 3.075 4284703788
0.5686717 0.027382294 3.0660002 4284309544
0.57702422 0.02738014 3.0660002 4284178731
0.084630951 0.0060322369 0.97200006 4284772142
0.086846441 0.0060009402 0.96700007 4285100337
0.089311808 0.0059882547 0.96500003 4285297713
0.091575295 0.0059631527 0.96100003 4285034540
0.094012558 0.0059504565 0.95900005 4285625647
0.096438482 0.0059377537 0.95700002 4285559854
0.099060103 0.0059374538 0.95700002 4285822511
0.10146883 0.0059247385 0.95500004 4285888304
0.10386621 0.0059120185 0.95300007 4285822512
0.10636397 0.005905496 0.95200002 4285427756
0.1087414 0.0058927648 0.95000005 4285296170
0.11110745 0.005880028 0.94800007 4285625135
0.11346214 0.0058672866 0.94600004 4285428015
0.11617348 0.0058731451 0.94700003 4285296429
0.11876445 0.0058727958 0.94700003 4284836394
0.12135499 0.0058724401 0.94700003 4285099052
0.12407599 0.0058782795 0.94800007 4284309281
0.12706919 0.0058965124 0.95100003 4284638248
0.12980568 0.0059023374 0.95200002 4284309283
0.13240808 0.005901956 0.95200002 4284703787
0.13501003 0.00590157 0.95200002 4284178213
0.13790061 0.0059135747 0.95400006 4284243751
0.14080161 0.0059255734 0.95600003 4284638509
0.50163049 0.018989757 3.0650001 4284836394
0.51032621 0.019000757 3.0670002 4285099052
0.5178473 0.018968374 3.062 4284704039
0.52482402 0.018917402 3.0540001 4284572455
0.53385037 0.018940749 3.0580001 4284309283
0.54236501 0.0189455 3.0590003 4284703787
0.55250365 0.019005973 3.0690002 4284178213
0.56068486 0.018998306 3.0680001 4284243751
0.56830257 0.018972052 3.0640001 4284638509
0.086577229 0.0033359937 0.96400005 4285297966
0.089126937 0.0033323809 0.96300006 4285626416
0.09138494 0.0033183834 0.95900005 4285363244
0.094012782 0.0033182232 0.95900005 4285756718
0.10146907 0.003303882 0.95500004 4286019376
0.10397545 0.0033002479 0.95400006 4285887023
0.10636424 0.0032931515 0.95200002 4286018609
0.10897057 0.0032929697 0.95200002 4285690159
0.11134211 0.0032858672 0.95000005 4285624880
0.11394215 0.0032856783 0.95000005 4285362224
0.11654177 0.0032854865 0.95000005 4285296431
0.11901554 0.0032818327 0.94900006 4284704809
0.12161157 0.0032816343 0.94900006 4284704809
0.12433802 0.0032848895 0.95000005 4284901420
0.12720311 0.003291599 0.95200002 4284769834
0.12994233 0.0032948474 0.95300007 4284703787
0.13254747 0.0032946344 0.95300007 4284309030
0.13790092 0.0032976563 0.95400006 4284309291
0.14080191 0.0033043465 0.95600003 4284243498
0.49004832 0.010521144 3.0450001 4285296431
0.49983123 0.010551476 3.0540001 4284704809
0.50833058 0.010554157 3.0550001 4284704809
0.51514256 0.010522285 3.0460002 4284901420
0.52173191 0.010486957 3.0360003 4284769834
0.53070909 0.010499979 3.0400002 4284703787
0.54112494 0.010540623 3.052 4284309030
0.5594067 0.010570074 3.0610001 4284309291
0.56681991 0.010551983 3.0560002 4284243498
0.089219585 0.00068961922 0.96400005 4285823279
0.091480315 0.00068672537 0.96000004 4286085937
0.10146917 0.0006830123 0.95500004 4286216241
0.10397556 0.00068226102 0.95400006 4286018609
0.10647607 0.00068150903 0.95300007 4285426472
0.10897068 0.00068075635 0.95200002 4285295401
0.11145942 0.00068000297 0.95100003 4285032743
0.11394227 0.00067924906 0.95000005 4285230124
0.11641922 0.0006784944 0.94900006 4284704294
0.11889026 0.00067773915 0.94800007 4284507430
0.12173983 0.00067912781 0.95000005 4284836141
0.12433816 0.00067908602 0.95000005 4284967213
0.12720323 0.00068047299 0.95200002 4284901166
0.12994246 0.00068114448 0.95300007 4284440616
0.48811758 0.0021664668 3.0330002 4284704294
0.49688581 0.0021684524 3.0360003 4284507430
0.50533593 0.0021690074 3.0370002 4284836141
0.5129444 0.0021659902 3.0330002 4284967213
0.51984203 0.0021601154 3.0250001 4284703787
0.5282656 0.0021606665 3.0260003 4284440616
0.0914803 -0.0019483954 0.96000004 4286282800
0.096539564 -0.0019441467 0.95800006 4286348079
0.10146914 -0.0019378602 0.95500004 4285953069
0.1041935 -0.0019397867 0.95600003 4285821230
0.10919958 -0.0019355174 0.95400006 4285623598
0.1116938 -0.0019333798 0.95300007 4285360426
0.11418211 -0.0019312402 0.95200002 4285164076
0.1167872 -0.0019311274 0.95200002 4284900904
0.11926645 -0.001928984 0.95100003 4284967213
0.12199608 -0.0019308955 0.95200002 4284835627
0.12459987 -0.0019307765 0.95200002 4284506409
0.12720318 -0.0019306557 0.95200002 4284375337
0.12980607 -0.0019305331 0.95200002 4283980581
0.48570332 -0.0061163558 3.0180001 4284900904
0.49410328 -0.0061179386 3.0190001 4284967213
0.50267357 -0.0061215432 3.0210001 4284835627
0.51226777 -0.0061372994 3.029 4284506409
0.51932633 -0.006122658 3.0220001 4284309544
0.5270434 -0.0061161183 3.0190001 4284111398
0.10419332 -0.0045632571 0.95600003 4285887023
0.10669932 -0.0045582382 0.95500004 4285887024
0.10931386 -0.0045579863 0.95500004 4285689391
0.11192802 -0.0045577302 0.95500004 4285360426
0.11454174 -0.0045574689 0.95500004 4285163562
0.11690968 -0.0045476584 0.95300007 4285229871
0.11939166 -0.0045426162 0.95200002 4284901420
0.1219959 -0.004542341 0.95200002 4284506408
0.12459967 -0.0045420611 0.95200002 4284309030
0.12720297 -0.0045417771 0.95200002 4284177960
0.47430068 -0.014294117 2.9980001 4285163562
0.48248386 -0.014293091 2.9980001 4285229871
0.49181128 -0.014325427 3.0050001 4284901420
0.50067598 -0.014343443 3.0090001 4284506408
0.50956106 -0.014361447 3.0130002 4284309030
0.51795077 -0.014365138 3.0140002 4284112167
0.104302 -0.0071942271 0.95700002 4286018863
0.10681071 -0.0071863211 0.95600003 4285755437
0.10931353 -0.0071784081 0.95500004 4285426219
0.11192768 -0.0071780048 0.95500004 4285228840
0.11442146 -0.0071700774 0.95400006 4284965929
0.11703201 -0.0071696579 0.95400006 4284835113
0.11951674 -0.0071617174 0.95300007 4284571688
0.12212368 -0.0071612834 0.95300007 4284374823
0.12473019 -0.0071608429 0.95300007 4284177705
0.4724009 -0.022421813 2.9860001 4284965929
0.4802295 -0.022405189 2.9840002 4284835113
0.48984596 -0.022471135 2.993 4284571688
0.49784598 -0.022461981 2.9920001 4284374823
0.50736117 -0.022520375 3.0000002 4284177705
0.097042531 -0.009883496 0.96300006 4286217521
0.10441054 -0.0098306555 0.95800006 4285953584
0.10692198 -0.0098198634 0.95700002 4285755437
0.10942753 -0.0098090628 0.95600003 4285820977
0.1120444 -0.0098085115 0.95600003 4285294634
0.11466084 -0.009807948 0.95600003 4284703527
0.1171542 -0.0097971177 0.95500004 4284637480
0.11976705 -0.0097965337 0.95500004 4284440102
0.12225132 -0.0097856838 0.95400006 4284309030
0.12499142 -0.0097953379 0.95500004 4284374570
0.4602046 -0.03034229 2.96 4284900136
0.47050056 -0.030483641 2.9740002 4284900906
0.4789401 -0.030501956 2.9760001 4284571687
0.48788005 -0.030550987 2.9810002 4284571688
0.097445056 -0.012578529 0.96700007 4286086705
0.10714482 -0.012471859 0.95900005 4285690159
0.10954136 -0.012445164 0.95700002 4285360426
0.11216096 -0.012444464 0.95700002 4285163048
0.1146602 -0.012430749 0.95600003 4284769320
0.11727621 -0.012430023 0.95600003 4284571687
0.11989179 -0.012429284 0.95600003 4284505895
0.12263506 -0.012441533 0.95700002 4284308776
0.45973581 -0.038417336 2.9570003 4284900136
0.46939066 -0.038544528 2.9670002 4284769320
0.47652364 -0.038463823 2.9610002 4284571687
0.48460427 -0.038461041 2.9610002 4284505895
0.10736752 -0.015134783 0.96100003 4285493296
0.109884 -0.0151182 0.96000004 4285558320
0.11251178 -0.015117351 0.96000004 4285295148
0.11513916 -0.015116486 0.96000004 4285097515
0.1177661 -0.015115604 0.96000004 4284703274
0.12039261 -0.015114706 0.96000004 4284505895
0.12577517 -0.015128605 0.96100003 4284046121
0.4486036 -0.046211559 2.937 4285426734
0.45802256 -0.046349924 2.9460001 4285163308
0.46669817 -0.04640957 2.95 4285031722
0.47394565 -0.046327598 2.9450002 4284769067
0.48149163 -0.04627705 2.9420002 4284308262
0.10295353 -0.017921487 0.96900004 4285428784
0.10781351 -0.017845605 0.96500003 4285493296
0.11022647 -0.01780764 0.96300006 4285295662
0.11297964 -0.017825129 0.96400005 4284900906
0.11549802 -0.017805619 0.96300006 4284835113
0.11813315 -0.017804582 0.96300006 4284505895
0.12076785 -0.017803524 0.96300006 4284308262
0.43712872 -0.053841557 2.914 4285295662
0.4464618 -0.054004118 2.9230001 4285229869
0.4550651 -0.054074239 2.927 4284900906
0.46242315 -0.053996518 2.9230001 4284571687
0.47072339 -0.05402961 2.9250002 4284242469
0.47821474 -0.053970281 2.9220002 4284242470
0.10571513 -0.020600652 0.97000003 4284837166
0.10825936 -0.020578306 0.96900004 4284968495
0.11091216 -0.020577176 0.96900004 4284704555
0.11356455 -0.020576021 0.96900004 4284507178
0.11597665 -0.020532377 0.96700007 4284506923
0.11862271 -0.020531181 0.96700007 4284177705
0.43577471 -0.061639115 2.9050002 4284770348
0.44309744 -0.061549991 2.901 4284572969
0.45070785 -0.061503265 2.8990002 4284638509
0.45830578 -0.061456483 2.8970001 4284177958
0.11194108 -0.023451487 0.97800004 4284047145
0.11693485 -0.023376904 0.97500002 4284047145
0.44821578 -0.069066025 2.8830001 4284112938
